ply
format ascii 1.0
element vertex 375
property float x
property float y
property float z
property float nx
property float ny
property float nz
property uchar red
property uchar green
property uchar blue
end_header
3.206186056137085 -3.6819095611572266 19.20713996887207 0.09431737661361694 -0.3066868484020233 0.9471258521080017 127 127 127
3.346524953842163 4.280832290649414 13.699679374694824 0.5149372220039368 0.8226168751716614 0.24112468957901 127 127 127
-2.7956595420837402 7.964136600494385 10.955231666564941 0.43791770935058594 0.8821865320205688 -0.17313320934772491 127 127 127
-1.4347436428070068 8.912330627441406 9.680868148803711 -0.08246630430221558 -0.381582647562027 -0.9206486940383911 127 127 127
5.223433017730713 -4.620724678039551 18.725793838500977 0.11316485702991486 -0.3411165177822113 0.9331845045089722 127 127 127
-1.4542142152786255 8.91360092163086 9.553412437438965 -0.04628613218665123 -0.19713334739208221 -0.9792834520339966 127 127 127
2.64644455909729 5.716212749481201 14.884858131408691 0.5237979292869568 0.7900808453559875 -0.3184462785720825 127 127 127
3.3963351249694824 8.463973045349121 12.545614242553711 -0.018888570368289948 0.9908660054206848 0.13352079689502716 127 127 127
-4.356512069702148 6.320229530334473 14.512324333190918 -0.3578406274318695 -0.008770463056862354 0.9337415099143982 127 127 127
-2.6486568450927734 7.900174617767334 10.85410213470459 -0.759773850440979 -0.6484383344650269 0.04765968769788742 127 127 127
-3.625112771987915 5.449162483215332 15.089191436767578 -0.9531124830245972 -0.29958751797676086 -0.04270824044942856 127 127 127
4.012369155883789 4.7530646324157715 13.524129867553711 0.38590458035469055 0.39986592531204224 -0.8313753008842468 127 127 127
-3.1875977516174316 5.196786880493164 14.633143424987793 -0.2306678146123886 -0.576992928981781 0.7834995985031128 127 127 127
-4.126979827880859 4.8507304191589355 14.20503044128418 -0.5267635583877563 -0.7068435549736023 0.47211480140686035 127 127 127
-3.8601531982421875 8.156697273254395 13.937234878540039 0.2646028399467468 0.8521292209625244 0.451509952545166 127 127 127
3.3268260955810547 0.7889065146446228 13.019270896911621 0.18322217464447021 -0.25529253482818604 0.9493446946144104 127 127 127
-2.286419630050659 8.369244575500488 10.799848556518555 -0.3702917695045471 0.8522724509239197 -0.36948034167289734 127 127 127
0.19855833053588867 -0.17065219581127167 12.843425750732422 -0.08357027173042297 -0.3471536338329315 0.934077262878418 127 127 127
-3.7456929683685303 3.327364683151245 14.242408752441406 -0.7136820554733276 0.163566455245018 0.6811049580574036 127 127 127
-4.656914234161377 5.496887683868408 14.272568702697754 -0.5359926819801331 -0.751283586025238 0.38507768511772156 127 127 127
-4.309179306030273 4.434638023376465 13.69814395904541 -0.45226675271987915 -0.5168430209159851 0.726861834526062 127 127 127
-2.1458468437194824 8.200675010681152 10.629899024963379 0.26291003823280334 0.24198153614997864 -0.9339824914932251 127 127 127
-3.4325716495513916 5.353946685791016 15.017001152038574 -0.2996789813041687 -0.8549225926399231 0.4234381318092346 127 127 127
-4.345937252044678 8.292427062988281 13.667637825012207 -0.7924754619598389 0.6030540466308594 -0.09115134179592133 127 127 127
3.176875591278076 0.31270328164100647 12.842035293579102 0.16587069630622864 -0.28809839487075806 -0.9431257843971252 127 127 127
-3.3767905235290527 5.494754314422607 15.633038520812988 -0.8094264268875122 0.5291306972503662 0.2546558380126953 127 127 127
-0.7336613535881042 -3.828477144241333 13.200715065002441 -0.24952566623687744 -0.1314794272184372 -0.9594008922576904 127 127 127
-2.80168080329895 8.892512321472168 11.030372619628906 -0.10256560146808624 0.4314208924770355 -0.8963015079498291 127 127 127
3.1799280643463135 -0.8703057765960693 12.358330726623535 0.18679077923297882 -0.401902973651886 0.8964280486106873 127 127 127
-0.09037217497825623 7.859606742858887 10.884941101074219 0.1680743396282196 0.9401317238807678 -0.29648515582084656 127 127 127
3.5670692920684814 1.6859240531921387 13.282353401184082 0.1648217886686325 -0.3052561581134796 0.9378979206085205 127 127 127
3.761941432952881 1.4906833171844482 13.243075370788574 -0.055463965982198715 -0.33052510023117065 0.9421660900115967 127 127 127
3.9597766399383545 4.176524639129639 13.93657112121582 0.07262195646762848 -0.9794166684150696 -0.1883324533700943 127 127 127
-2.837352752685547 7.935909748077393 10.792311668395996 -0.7393708229064941 -0.3837246298789978 -0.5532506108283997 127 127 127
4.073498249053955 4.564281463623047 13.447627067565918 0.3753264248371124 0.027757897973060608 -0.9264769554138184 127 127 127
-3.7043368816375732 3.3271026611328125 14.20983600616455 -0.8063041567802429 -0.023028213530778885 0.5910528302192688 127 127 127
-2.7606148719787598 8.273716926574707 10.760148048400879 0.5621020197868347 0.6984984278678894 -0.44287845492362976 127 127 127
-4.643621921539307 5.866741180419922 14.6030912399292 -0.458183228969574 -0.30675122141838074 0.8342492580413818 127 127 127
3.2423479557037354 0.7882289290428162 13.014601707458496 0.07125283777713776 -0.09734668582677841 0.9926966428756714 127 127 127
3.5092902183532715 -3.3735241889953613 19.261476516723633 0.07784656435251236 -0.280505895614624 0.9566903114318848 127 127 127
-4.377897262573242 4.900152683258057 14.065985679626465 -0.398320734500885 -0.7649372220039368 0.5061735510826111 127 127 127
-0.3635742664337158 7.896876335144043 10.712230682373047 0.4395582675933838 0.8361055850982666 -0.32820120453834534 127 127 127
3.3535492420196533 1.3572447299957275 13.221915245056152 0.06766170263290405 -0.2107265144586563 0.9752006530761719 127 127 127
1.0862922668457031 8.277535438537598 10.55591106414795 0.40592533349990845 0.6423124670982361 -0.6501225233078003 127 127 127
-2.2706081867218018 7.95768928527832 10.930253028869629 -0.16286179423332214 0.7532958984375 0.6371980309486389 127 127 127
-1.2283504009246826 8.692606925964355 9.606307029724121 0.006439805030822754 -0.5549436211585999 -0.8318630456924438 127 127 127
-2.896165370941162 8.661240577697754 11.057292938232422 -0.911690890789032 0.0927007868885994 0.4002828598022461 127 127 127
2.9554314613342285 5.224522590637207 16.52913475036621 0.8819075226783752 0.4680023193359375 0.05668296664953232 127 127 127
3.515451669692993 4.15267276763916 13.383931159973145 0.2815593183040619 0.19825483858585358 -0.9388394355773926 127 127 127
1.454267144203186 7.884402751922607 10.545881271362305 -0.12063214927911758 0.9090376496315002 0.3988715708255768 127 127 127
0.03413086012005806 -0.2179734706878662 12.975757598876953 -0.04104438051581383 -0.22726048529148102 0.9729686975479126 127 127 127
-2.8502695560455322 8.189003944396973 10.946479797363281 -0.07107292860746384 -0.16734573245048523 -0.983333170413971 127 127 127
-0.6516517400741577 7.971530914306641 11.016491889953613 -0.04034707322716713 0.9948362708091736 0.09312897175550461 127 127 127
-4.139230251312256 4.492905616760254 13.910387992858887 -0.8890246748924255 0.1412045955657959 0.43554162979125977 127 127 127
-4.161947727203369 6.420557975769043 14.482401847839355 -0.6326348781585693 -0.27585598826408386 -0.7236550450325012 127 127 127
3.896228313446045 0.6260370016098022 12.929024696350098 -0.16695618629455566 -0.28783997893333435 0.9430131912231445 127 127 127
3.0392251014709473 7.347039699554443 15.42409896850586 0.7795166373252869 -0.578173816204071 0.24097487330436707 127 127 127
-4.087747097015381 5.400673866271973 14.581149101257324 -0.901951014995575 -0.4115311801433563 -0.130868062376976 127 127 127
-4.794406890869141 7.0571160316467285 14.436068534851074 -0.958443284034729 0.186822310090065 -0.2156013697385788 127 127 127
-2.7578141689300537 8.123998641967773 10.61701488494873 0.4739440679550171 0.8742896318435669 -0.1048559695482254 127 127 127
2.575909376144409 8.2863130569458 12.930585861206055 -0.06340829282999039 0.9316071271896362 0.3578931987285614 127 127 127
-0.13679291307926178 -1.3840065002441406 12.541773796081543 0.278339147567749 -0.5788143277168274 -0.7664863467216492 127 127 127
-0.7000385522842407 7.955478668212891 11.250649452209473 -0.03906466066837311 0.9486510157585144 -0.31390324234962463 127 127 127
3.306980848312378 5.276793479919434 13.957663536071777 0.9108625650405884 0.06746126711368561 0.40715891122817993 127 127 127
3.366849422454834 -0.7897882461547852 12.305741310119629 -0.2756373882293701 -0.789649248123169 0.5481588244438171 127 127 127
3.2156500816345215 8.472737312316895 12.556648254394531 0.054563406854867935 0.9412258267402649 0.3333420157432556 127 127 127
3.0285630226135254 0.20109963417053223 12.828768730163574 0.6583921909332275 -0.6706773638725281 -0.34163087606430054 127 127 127
3.1664254665374756 4.404269695281982 13.9265718460083 0.8775577545166016 0.10211782902479172 0.4684702754020691 127 127 127
3.240987539291382 0.7447341680526733 13.000138282775879 -0.025317339226603508 -0.33682382106781006 0.9412272572517395 127 127 127
3.993880271911621 5.7133636474609375 13.89898681640625 0.2749437093734741 0.4182364344596863 -0.8657276034355164 127 127 127
1.2743536233901978 7.913114070892334 10.627584457397461 0.28039947152137756 0.8112075328826904 0.5131456851959229 127 127 127
-2.5724992752075195 7.818994998931885 10.760631561279297 0.06680377572774887 0.9938381314277649 0.08844787627458572 127 127 127
3.9647204875946045 6.491788387298584 14.11467456817627 -0.3406481444835663 0.7912039756774902 0.5078929662704468 127 127 127
-2.531848430633545 7.809567451477051 10.907033920288086 -0.9540645480155945 0.28480884432792664 -0.09297773241996765 127 127 127
3.0423781871795654 8.461185455322266 12.597515106201172 0.05672849714756012 0.8340820670127869 0.5487157702445984 127 127 127
-4.768091678619385 6.447495460510254 14.15664005279541 -0.9908579587936401 0.001227916800417006 0.13490380346775055 127 127 127
-3.8906612396240234 4.37079381942749 14.35459041595459 -0.37700793147087097 -0.6694285273551941 0.6401019096374512 127 127 127
-1.9255129098892212 8.434659004211426 10.738381385803223 0.08368762582540512 0.8213638067245483 -0.5642321109771729 127 127 127
3.926419973373413 6.010700225830078 14.013370513916016 0.03635614737868309 -0.6138318181037903 0.7885992527008057 127 127 127
3.004976749420166 -0.9993278384208679 12.344857215881348 0.30690622329711914 -0.40863463282585144 0.8595501184463501 127 127 127
2.898671865463257 0.0563034825026989 12.776466369628906 0.6429927945137024 -0.6443585753440857 -0.41395941376686096 127 127 127
1.0945465564727783 7.955123424530029 10.638206481933594 0.8279176950454712 0.3720414936542511 0.41968727111816406 127 127 127
4.121913433074951 4.448792934417725 13.46699333190918 0.3710489571094513 -0.057204000651836395 -0.9268497228622437 127 127 127
3.6302971839904785 6.334565162658691 14.376731872558594 -0.2362835705280304 0.5768241286277771 0.7819488644599915 127 127 127
-3.9950668811798096 2.2049765586853027 15.789454460144043 -0.9705379605293274 0.11453691124916077 0.21198426187038422 127 127 127
3.320080518722534 4.201989650726318 13.982747077941895 0.35720282793045044 0.9082768559455872 -0.21780559420585632 127 127 127
-1.111307978630066 7.869563102722168 10.893394470214844 0.06631620973348618 0.9960173964500427 -0.059594545513391495 127 127 127
-4.760669708251953 5.816050052642822 14.22367000579834 -0.7095448970794678 -0.4888842701911926 0.5074822306632996 127 127 127
-3.378859281539917 8.8373441696167 11.68288803100586 0.3286496698856354 0.7489975094795227 -0.5753191709518433 127 127 127
-2.5903656482696533 7.9173150062561035 10.782193183898926 0.578733503818512 0.8010138869285583 -0.15311570465564728 127 127 127
-0.8452337980270386 5.91477108001709 19.939634323120117 -0.027591591700911522 0.9807690978050232 0.19321149587631226 127 127 127
3.452476978302002 -0.9297000169754028 12.211540222167969 0.6469159126281738 -0.41088393330574036 0.6423972249031067 127 127 127
-2.928598642349243 9.048993110656738 11.232664108276367 -0.7593209147453308 0.48841315507888794 -0.4299817681312561 127 127 127
3.3082332611083984 4.3255743980407715 13.405412673950195 0.682515025138855 0.7125993371009827 0.16240516304969788 127 127 127
-4.423253059387207 4.158328533172607 14.59634017944336 -0.2882446348667145 0.9434722661972046 -0.16363126039505005 127 127 127
6.353137969970703 9.127760887145996 16.404666900634766 0.7317614555358887 -0.3552044630050659 -0.5816828608512878 127 127 127
6.77026891708374 8.958169937133789 17.615262985229492 0.7098267674446106 -0.6675243377685547 -0.22484928369522095 127 127 127
-0.7034419775009155 8.135064125061035 11.511341094970703 0.11591852456331253 0.9741221070289612 -0.19403372704982758 127 127 127
-4.225722312927246 4.220155715942383 13.982593536376953 -0.613322377204895 0.7895298004150391 -0.021872160956263542 127 127 127
-0.5492730736732483 7.95673942565918 10.586065292358398 0.36911970376968384 0.9289824962615967 0.027243878692388535 127 127 127
1.3456833362579346 7.847037315368652 10.837555885314941 0.32205817103385925 0.8572119474411011 0.40182873606681824 127 127 127
-4.304149627685547 6.344723224639893 14.632466316223145 -0.3950343430042267 -0.3381516933441162 0.8541670441627502 127 127 127
3.3358397483825684 1.3344639539718628 13.211197853088379 -0.019301077350974083 -0.3837983012199402 0.9232152104377747 127 127 127
-4.49592924118042 4.690542221069336 13.888605117797852 -0.5070520639419556 0.42974424362182617 -0.7471399307250977 127 127 127
1.2748223543167114 7.854926109313965 10.688399314880371 0.2500826418399811 0.8962660431861877 0.36628657579421997 127 127 127
3.5165956020355225 1.6375560760498047 13.178914070129395 0.25976139307022095 -0.2410186529159546 0.9351118206977844 127 127 127
-2.8562607765197754 8.91205883026123 11.202629089355469 -0.3297223746776581 0.5142185688018799 -0.7917464375495911 127 127 127
3.5156848430633545 0.7594605684280396 12.98508071899414 -0.07703088968992233 -0.4723581075668335 0.878034234046936 127 127 127
3.0391581058502197 1.194360613822937 15.557474136352539 0.9436852931976318 -0.3228113353252411 -0.07246391475200653 127 127 127
3.5972845554351807 0.765447199344635 12.967277526855469 -0.17136377096176147 -0.39700645208358765 0.9016764163970947 127 127 127
1.1687190532684326 8.853435516357422 10.697953224182129 -0.15542200207710266 0.45504236221313477 -0.8768013119697571 127 127 127
3.234673500061035 0.24829241633415222 12.751394271850586 0.19542095065116882 0.0446450412273407 -0.9797027707099915 127 127 127
3.1012494564056396 0.5540536046028137 12.923714637756348 0.0523194894194603 -0.34785211086273193 0.9360884428024292 127 127 127
3.1860556602478027 5.438990592956543 14.258861541748047 0.9083025455474854 0.011592603288590908 0.41815322637557983 127 127 127
3.7315688133239746 6.1622114181518555 14.40991497039795 0.8246495723724365 0.35304760932922363 -0.44193944334983826 127 127 127
2.6533455848693848 -4.081654071807861 19.143985748291016 0.11363928020000458 -0.30203860998153687 0.9464981555938721 127 127 127
2.4007158279418945 8.373923301696777 12.80788803100586 0.033407170325517654 0.9111638069152832 0.41068777441978455 127 127 127
3.986755609512329 1.7739349603652954 13.339240074157715 0.3342621326446533 0.192429780960083 -0.9226264953613281 127 127 127
3.355860710144043 4.790456771850586 13.439570426940918 0.6797429919242859 -0.43097159266471863 0.593475341796875 127 127 127
3.3304672241210938 4.261682510375977 13.585107803344727 0.6055604219436646 0.7858721017837524 0.125306636095047 127 127 127
-1.5423369407653809 8.8319673538208 9.568465232849121 -0.0016841916367411613 -0.26800838112831116 -0.9634151458740234 127 127 127
-4.3619184494018555 6.350310325622559 14.619836807250977 -0.37787380814552307 -0.3474285900592804 0.8581985831260681 127 127 127
-2.49170184135437 8.816089630126953 10.202852249145508 -0.5993558168411255 -0.5877085328102112 -0.5434806942939758 127 127 127
-3.765557289123535 6.555539131164551 14.356030464172363 -0.8098932504653931 0.36467069387435913 -0.45944342017173767 127 127 127
2.7056517601013184 -0.08560335636138916 12.83659553527832 0.678200900554657 -0.5059125423431396 -0.5330066084861755 127 127 127
-0.7045940160751343 8.88980770111084 9.57927131652832 0.05890844017267227 0.23274542391300201 -0.9707520008087158 127 127 127
1.482330083847046 7.132453918457031 11.376668930053711 0.0021402325946837664 0.9720282554626465 0.2348541021347046 127 127 127
3.522937536239624 1.4996287822723389 13.258737564086914 0.17572078108787537 -0.1928398460149765 0.96536785364151 127 127 127
3.7246005535125732 0.9789338111877441 13.071475982666016 0.11559213697910309 -0.28481581807136536 0.9515873193740845 127 127 127
1.1537549495697021 8.207489967346191 10.579541206359863 0.48305803537368774 0.5901498794555664 -0.6468214988708496 127 127 127
-3.4808080196380615 5.284795761108398 15.379313468933105 -0.9561880826950073 -0.28870537877082825 -0.04851355031132698 127 127 127
1.8349004983901978 8.641435623168945 10.707587242126465 0.6439892053604126 0.1848485767841339 -0.742367148399353 127 127 127
3.589249849319458 0.6197202801704407 12.781210899353027 -0.11006074398756027 -0.2598981559276581 0.9593433141708374 127 127 127
1.7773557901382446 7.140852451324463 11.245614051818848 -0.10390156507492065 0.9818766713142395 0.15850116312503815 127 127 127
-0.6261970400810242 8.830464363098145 9.52163028717041 0.11041469126939774 0.10420552641153336 -0.9884077310562134 127 127 127
-3.398045063018799 8.973984718322754 11.697535514831543 0.18745511770248413 0.7415758371353149 -0.6441473960876465 127 127 127
-3.2916712760925293 5.69727087020874 15.036123275756836 -0.612211287021637 -0.7850502729415894 0.09430517256259918 127 127 127
2.9947099685668945 1.3511894941329956 13.270258903503418 0.4715767502784729 -0.4253442883491516 0.7724620699882507 127 127 127
1.8400779962539673 8.538536071777344 12.25203800201416 0.029290154576301575 0.9510329365730286 0.30769866704940796 127 127 127
1.3889107704162598 7.858100891113281 10.632674217224121 0.20121078193187714 0.8570153713226318 0.474382609128952 127 127 127
3.236755609512329 1.281695008277893 13.195661544799805 -0.06664273142814636 -0.37492766976356506 0.9246556162834167 127 127 127
3.2012360095977783 -0.7880304455757141 12.33066463470459 0.23743936419487 -0.3771531879901886 0.8951972126960754 127 127 127
3.0985300540924072 1.5950827598571777 13.32228946685791 -0.5106480121612549 -0.8414400219917297 0.17668448388576508 127 127 127
2.762049913406372 5.780614376068115 15.512714385986328 0.6843490600585938 0.7291516065597534 -0.002072106348350644 127 127 127
2.9690613746643066 4.874573707580566 13.94281005859375 0.564094603061676 -0.6101070642471313 0.556387186050415 127 127 127
-4.517706394195557 4.294675827026367 13.839136123657227 -0.3831169605255127 -0.8686010837554932 -0.31425073742866516 127 127 127
3.7603769302368164 -1.0362460613250732 12.128644943237305 -0.11372176557779312 -0.9110314846038818 -0.3963446617126465 127 127 127
-4.784804821014404 4.393321990966797 13.853569984436035 -0.6336623430252075 0.11712093651294708 -0.7646925449371338 127 127 127
-4.013730525970459 6.258728504180908 15.086167335510254 -0.5960710048675537 -0.01583210937678814 0.8027756214141846 127 127 127
2.6814441680908203 8.424334526062012 12.66243839263916 0.027185659855604172 0.8770900964736938 0.47955596446990967 127 127 127
3.25207781791687 4.333334922790527 13.787070274353027 0.9323390126228333 0.2621400058269501 0.24905161559581757 127 127 127
1.8104703426361084 8.756819725036621 11.552968978881836 -0.1246534138917923 0.9784473776817322 0.16462789475917816 127 127 127
3.120678663253784 4.608484745025635 14.036734580993652 0.7004696130752563 0.033825527876615524 0.7128801941871643 127 127 127
3.376941442489624 5.630352973937988 13.978666305541992 0.5383681058883667 -0.19651168584823608 0.8194772601127625 127 127 127
-4.571287155151367 4.2611165046691895 14.268553733825684 -0.23863354325294495 -0.9340913891792297 -0.2655698359012604 127 127 127
3.7949113845825195 4.054014682769775 13.818861961364746 0.34331533312797546 -0.9218536019325256 -0.1797793060541153 127 127 127
3.266028642654419 -0.970066487789154 12.177762031555176 0.26013267040252686 -0.2878606617450714 0.9216654896736145 127 127 127
3.4923083782196045 1.439024806022644 13.24547290802002 0.1798386126756668 -0.3458858132362366 0.9208806157112122 127 127 127
3.3398218154907227 4.969512462615967 13.87995433807373 0.7489484548568726 -0.4182860553264618 0.5139192342758179 127 127 127
2.8504724502563477 -1.940177083015442 19.844825744628906 0.10525617003440857 -0.3109363913536072 0.9445844292640686 127 127 127
4.17512845993042 -3.0942046642303467 19.300233840942383 0.1004059836268425 -0.31760263442993164 0.9428930282592773 127 127 127
3.831881284713745 0.8488218188285828 13.037280082702637 -0.11161653697490692 -0.31737151741981506 0.9417096376419067 127 127 127
4.723147392272949 -1.8429741859436035 19.644380569458008 0.11897430568933487 -0.2804962694644928 0.9524531364440918 127 127 127
-0.9994873404502869 7.115164279937744 11.490181922912598 -0.030338523909449577 0.9397065043449402 0.3406336307525635 127 127 127
-2.421246290206909 5.331524848937988 18.119674682617188 -0.8774464130401611 0.17527778446674347 0.4465036690235138 127 127 127
1.7385753393173218 5.397645950317383 17.960227966308594 -0.23967388272285461 0.901850700378418 0.35947439074516296 127 127 127
-0.6503574252128601 -4.667151927947998 12.961250305175781 -0.14230556786060333 0.02040780894458294 -0.9896124005317688 127 127 127
-2.8640522956848145 8.050398826599121 11.11083984375 -0.8804506659507751 -0.42748621106147766 -0.2050907015800476 127 127 127
2.39847469329834 -4.437160968780518 12.75260066986084 0.07482890039682388 -0.5552363991737366 0.8283194899559021 127 127 127
-4.306446552276611 6.239944934844971 14.633983612060547 -0.3994981646537781 -0.2606942355632782 0.8788855075836182 127 127 127
-3.0318245887756348 8.889237403869629 11.742711067199707 -0.042610492557287216 0.4990071654319763 -0.8655496835708618 127 127 127
-4.861249923706055 4.291057586669922 13.993818283081055 -0.85349041223526 -0.36581099033355713 0.3711286187171936 127 127 127
2.8868072032928467 8.917708396911621 11.557610511779785 -0.13864575326442719 0.9299038052558899 0.3406703472137451 127 127 127
3.4778919219970703 4.386521339416504 13.264395713806152 0.2677726447582245 0.5236393809318542 0.8087643384933472 127 127 127
-0.5276713371276855 7.932417392730713 10.627093315124512 0.42772337794303894 0.9022530317306519 0.05470104515552521 127 127 127
3.8409159183502197 0.8453771471977234 13.007241249084473 -0.0996125116944313 -0.33559826016426086 0.9367236495018005 127 127 127
3.1182589530944824 0.776416540145874 12.924647331237793 0.12148842960596085 -0.3724861145019531 0.9200514554977417 127 127 127
2.2608158588409424 -4.562183380126953 12.79979419708252 0.07800387591123581 -0.5810937881469727 0.8100897669792175 127 127 127
-4.719413757324219 4.383712291717529 14.021002769470215 -0.10232999175786972 -0.32459044456481934 -0.9403029680252075 127 127 127
-3.924504041671753 8.231189727783203 14.010052680969238 0.3044707477092743 0.9072881937026978 0.29004427790641785 127 127 127
3.8321614265441895 0.7478766441345215 12.945939064025879 -0.11587939411401749 -0.32551002502441406 0.9384109973907471 127 127 127
3.8802924156188965 1.5945537090301514 13.3231201171875 0.2297106683254242 0.2059345245361328 -0.9512224197387695 127 127 127
-0.7504286766052246 7.948397636413574 10.638042449951172 0.34433507919311523 0.9339746832847595 0.09552282840013504 127 127 127
-2.6745669841766357 8.806074142456055 11.083986282348633 -0.48622944951057434 0.4631825089454651 -0.7409743070602417 127 127 127
-3.1360135078430176 8.784534454345703 11.556340217590332 0.4642585217952728 0.08775626122951508 -0.8813415169715881 127 127 127
-1.220526099205017 7.0852766036987305 11.473976135253906 -0.07037553936243057 0.9243077635765076 0.3751033544540405 127 127 127
-3.4719793796539307 6.307006359100342 15.505977630615234 -0.7658258676528931 -0.17193415760993958 0.6196364760398865 127 127 127
-2.863603115081787 8.850955963134766 11.001921653747559 -0.2195712774991989 0.6454759240150452 -0.7315390706062317 127 127 127
-0.40013015270233154 8.050666809082031 11.346138954162598 -0.3471151292324066 0.9352844953536987 -0.06894891709089279 127 127 127
6.373525142669678 9.0390625 16.301475524902344 0.7774991989135742 -0.16378171741962433 -0.607182502746582 127 127 127
0.6483303308486938 6.042119979858398 19.872629165649414 -0.011248616501688957 -0.980894148349762 0.1942169964313507 127 127 127
-3.600701332092285 5.0505218505859375 16.337038040161133 -0.7489744424819946 0.6105344295501709 0.25745877623558044 127 127 127
-0.9021399617195129 7.1143951416015625 11.313729286193848 -0.037847958505153656 0.9752951264381409 0.21763941645622253 127 127 127
2.101285696029663 8.486818313598633 12.292081832885742 -0.059164583683013916 0.9543965458869934 0.29262059926986694 127 127 127
-2.4104485511779785 8.129589080810547 10.744475364685059 -0.6459171175956726 0.6113579273223877 -0.4572007954120636 127 127 127
-0.7971373796463013 4.821989059448242 12.358180046081543 -0.04436052218079567 0.34432893991470337 -0.9378005266189575 127 127 127
-2.639829635620117 8.041388511657715 10.578634262084961 -0.1592676043510437 -0.18762226402759552 -0.9692428708076477 127 127 127
1.6277854442596436 9.041987419128418 11.00356388092041 0.5280212163925171 0.5021013021469116 -0.6848998665809631 127 127 127
-3.680565118789673 1.1347612142562866 13.290214538574219 -0.9964695572853088 -0.0833209902048111 -0.010297007858753204 127 127 127
3.549302101135254 4.247343063354492 13.501972198486328 0.44486284255981445 -0.3905615508556366 -0.8059521317481995 127 127 127
-2.865793228149414 8.68476676940918 10.863719940185547 -0.4392566382884979 0.5479204058647156 -0.7119247317314148 127 127 127
1.1590912342071533 7.854043960571289 10.692083358764648 0.4973057806491852 0.811758279800415 -0.30616241693496704 127 127 127
3.495500087738037 -0.6285072565078735 11.678194999694824 0.2352934032678604 -0.9705221652984619 0.05219051614403725 127 127 127
1.5832713842391968 8.312898635864258 10.527085304260254 0.6162576675415039 -0.21138788759708405 -0.7586445808410645 127 127 127
-4.558352470397949 8.175396919250488 13.946038246154785 0.000505817006342113 0.9773056507110596 0.21183347702026367 127 127 127
3.447009563446045 1.2261152267456055 13.174278259277344 0.08737098425626755 -0.29073575139045715 0.9528058767318726 127 127 127
2.85433292388916 4.341496467590332 14.232817649841309 0.7544354796409607 0.088926300406456 0.6503224968910217 127 127 127
4.539567470550537 -4.275084018707275 18.903480529785156 0.07248041033744812 -0.3128635585308075 0.9470285177230835 127 127 127
3.5219457149505615 1.2218059301376343 13.150705337524414 0.027787435799837112 -0.28533369302749634 0.958025336265564 127 127 127
-3.5114409923553467 5.321606636047363 14.812898635864258 -0.7421866059303284 0.03926459699869156 -0.6690421104431152 127 127 127
1.2719169855117798 7.87800407409668 10.685111045837402 0.30577194690704346 0.8841672539710999 0.3532021641731262 127 127 127
3.332331418991089 8.4633150100708 12.452781677246094 -0.026351284235715866 0.9597773551940918 0.2795228660106659 127 127 127
1.3503775596618652 7.824746131896973 10.676149368286133 0.28912195563316345 0.8310065269470215 0.47522276639938354 127 127 127
4.094423770904541 -0.5156171917915344 11.736015319824219 0.27346980571746826 -0.7135395407676697 -0.6450392007827759 127 127 127
0.09928223490715027 -0.20200084149837494 12.846505165100098 -0.07651226967573166 -0.3432595729827881 0.936119019985199 127 127 127
-0.8274137377738953 8.981269836425781 9.59341049194336 -0.047905031591653824 0.47877442836761475 -0.8766300082206726 127 127 127
3.240311861038208 4.303377628326416 13.524742126464844 0.7091348767280579 0.6519533395767212 0.2684856653213501 127 127 127
3.2692394256591797 1.0488463640213013 13.12985897064209 -0.06286906450986862 -0.2694796025753021 0.9609517455101013 127 127 127
-2.390925645828247 8.138571739196777 10.688250541687012 -0.7023991942405701 0.658227801322937 -0.2708720266819 127 127 127
2.984102249145508 3.9650039672851562 16.313282012939453 0.9985246658325195 0.04677373543381691 -0.02758074551820755 127 127 127
3.5305676460266113 1.4946343898773193 13.1949462890625 0.16290149092674255 -0.07786423712968826 0.983565092086792 127 127 127
-3.6674530506134033 5.316866874694824 14.624618530273438 -0.3498813211917877 0.22453100979328156 0.9094882607460022 127 127 127
4.084536552429199 -0.5630189180374146 11.687909126281738 0.31556981801986694 -0.6922225952148438 -0.6490328311920166 127 127 127
3.4970474243164062 0.6102879047393799 12.940530776977539 -0.03268023580312729 -0.23370108008384705 0.9717591404914856 127 127 127
2.1298317909240723 8.338421821594238 12.657817840576172 0.029725195840001106 0.9717661142349243 0.23406635224819183 127 127 127
5.735397815704346 8.932771682739258 16.124345779418945 0.7711758017539978 -0.3321601450443268 -0.5430998802185059 127 127 127
3.191277027130127 -0.5321747064590454 12.394097328186035 0.055404312908649445 -0.9076363444328308 0.416084885597229 127 127 127
1.352807641029358 8.077032089233398 10.469216346740723 -0.39145830273628235 -0.14135919511318207 -0.9092733263969421 127 127 127
2.5958189964294434 -4.720015525817871 18.940702438354492 0.11020383983850479 -0.30217882990837097 0.94685959815979 127 127 127
-2.226404905319214 7.963555335998535 11.155826568603516 -0.4300273060798645 0.7744976878166199 -0.4639286994934082 127 127 127
1.32623291015625 7.930701732635498 10.539219856262207 0.5843147039413452 0.6133227944374084 0.5314240455627441 127 127 127
2.632427453994751 8.62156867980957 12.107428550720215 -0.007394850719720125 0.9976959228515625 0.06744024902582169 127 127 127
6.646966934204102 7.639072895050049 18.933917999267578 0.8635494709014893 -0.41959473490715027 -0.27968302369117737 127 127 127
-2.507246971130371 1.8111494779586792 18.125152587890625 -0.8446580767631531 0.00772162014618516 0.5352504849433899 127 127 127
3.4026098251342773 6.562392234802246 14.250314712524414 -0.23961961269378662 0.6669245958328247 0.70554518699646 127 127 127
-0.6986842155456543 7.998646259307861 10.516328811645508 0.33474186062812805 0.9385569095611572 0.08401746302843094 127 127 127
-4.595736026763916 5.598135948181152 14.400320053100586 -0.5581562519073486 -0.7376207709312439 0.3799700438976288 127 127 127
2.490626096725464 8.563669204711914 12.3549222946167 -0.2568608820438385 0.9257739186286926 0.2774259150028229 127 127 127
1.3618477582931519 8.134048461914062 10.47354793548584 0.016183309257030487 0.9762330055236816 0.2161184698343277 127 127 127
0.6830271482467651 6.219125747680664 14.223896980285645 -0.0796436220407486 0.6516910195350647 0.7542915344238281 127 127 127
3.4342329502105713 4.793068885803223 13.546503067016602 0.8908233046531677 -0.3147510886192322 0.32766690850257874 127 127 127
3.5165514945983887 -0.6953739523887634 11.48974895477295 0.2786060869693756 -0.9601566195487976 0.021863112226128578 127 127 127
3.147634744644165 8.663106918334961 12.0955228805542 -0.00577194057404995 0.9392616152763367 0.3431534767150879 127 127 127
3.769914150238037 5.775367736816406 13.79249095916748 0.23964497447013855 0.6538619995117188 -0.7176592350006104 127 127 127
1.8415583372116089 8.226486206054688 13.096467971801758 0.07571028172969818 0.985904335975647 0.14920006692409515 127 127 127
-0.2967994511127472 8.042820930480957 10.957056045532227 0.10477092117071152 0.9428845643997192 -0.3162148892879486 127 127 127
-4.334596633911133 6.48504638671875 14.882524490356445 -0.6348281502723694 0.6486662030220032 0.4197920858860016 127 127 127
-4.33064079284668 4.92218542098999 14.053367614746094 -0.2706058621406555 -0.8492730855941772 0.4533296227455139 127 127 127
-3.21408748626709 5.616045951843262 14.860910415649414 -0.6742632985115051 -0.6526790261268616 0.34551286697387695 127 127 127
-4.434887886047363 4.452158451080322 13.772053718566895 0.03472544997930527 0.1356363296508789 0.990149974822998 127 127 127
-4.025953769683838 4.366490840911865 14.2686767578125 -0.41222435235977173 0.9075205326080322 0.08048354089260101 127 127 127
3.4326093196868896 4.33807897567749 13.348075866699219 -0.029843762516975403 -0.8618674874305725 -0.5062546730041504 127 127 127
-0.36932581663131714 5.358496189117432 13.775402069091797 -0.9229016900062561 0.09931687265634537 0.37200623750686646 127 127 127
3.8323185443878174 -0.5323771238327026 11.661639213562012 0.11437501013278961 -0.9922676682472229 -0.04820036515593529 127 127 127
2.941744804382324 5.888374328613281 14.321070671081543 0.5924094319343567 -0.32476308941841125 0.7372788190841675 127 127 127
2.8780038356781006 4.315235137939453 14.285310745239258 0.7373362183570862 -0.0007737295236438513 0.6755254864692688 127 127 127
3.9427061080932617 4.4953203201293945 13.380402565002441 0.25142741203308105 -0.276506245136261 -0.9275389909744263 127 127 127
1.7232038974761963 8.86893367767334 10.687385559082031 0.2193143367767334 0.34803685545921326 -0.9114667177200317 127 127 127
3.2674336433410645 8.430289268493652 12.478681564331055 0.10373622179031372 0.9455015063285828 0.30865150690078735 127 127 127
3.8765456676483154 -0.529330849647522 11.5197114944458 0.1737937331199646 -0.9843303561210632 0.029825838282704353 127 127 127
-4.321394920349121 6.272308826446533 14.748353004455566 -0.5235480666160583 -0.32923346757888794 0.7858134508132935 127 127 127
3.1711978912353516 1.0024628639221191 15.931584358215332 0.9365657567977905 -0.3475654423236847 -0.04519812762737274 127 127 127
3.9182326793670654 -3.2219858169555664 19.276161193847656 0.08020583540201187 -0.2951301336288452 0.9520847201347351 127 127 127
-1.6065407991409302 8.955697059631348 9.520540237426758 0.0026574668008834124 -0.2012460082769394 -0.9795371294021606 127 127 127
2.029153347015381 8.448224067687988 12.4295654296875 -0.026953423395752907 0.9367302060127258 0.3490130603313446 127 127 127
-2.432802438735962 8.181099891662598 10.619145393371582 -0.7099655866622925 0.6361746191978455 -0.30204421281814575 127 127 127
3.449899911880493 4.224615097045898 13.415423393249512 0.2993343770503998 0.008965143002569675 -0.9541061520576477 127 127 127
-2.2812602519989014 8.238727569580078 10.612062454223633 -0.035295747220516205 0.527256965637207 -0.8489725589752197 127 127 127
-3.5959510803222656 4.7704758644104 14.641484260559082 0.17690494656562805 -0.3846776783466339 0.9059402942657471 127 127 127
1.3829585313796997 7.903750419616699 10.555964469909668 0.10464198142290115 0.9581174254417419 0.2665728032588959 127 127 127
-3.9090054035186768 5.303002834320068 14.46114730834961 -0.3159363269805908 -0.2919948399066925 0.9027310013771057 127 127 127
0.660884439945221 5.938082695007324 20.07309913635254 -0.010687931440770626 -0.9869422316551208 0.16071957349777222 127 127 127
-0.5794327855110168 -1.2150657176971436 12.532580375671387 0.3046588897705078 -0.6486790180206299 -0.6974227428436279 127 127 127
-4.3669962882995605 5.535256862640381 14.49971866607666 -0.3894191086292267 -0.7925326824188232 0.46930235624313354 127 127 127
-3.604576349258423 5.076515197753906 16.19457244873047 -0.7471535205841064 0.6132702231407166 0.25624480843544006 127 127 127
3.409376621246338 0.5096171498298645 12.921625137329102 0.023708539083600044 -0.13515035808086395 0.990541398525238 127 127 127
-2.9003102779388428 9.085638999938965 11.1600923538208 -0.390806645154953 0.5449239611625671 -0.7418409585952759 127 127 127
-2.7608420848846436 8.16307258605957 10.771200180053711 0.5189963579177856 0.8335563540458679 -0.18927906453609467 127 127 127
6.447263240814209 8.026634216308594 19.033552169799805 0.8524996638298035 -0.42387813329696655 -0.3058948218822479 127 127 127
1.331642985343933 7.916292190551758 10.606106758117676 0.39190682768821716 0.7581424117088318 0.5211805105209351 127 127 127
-4.844668865203857 6.778741359710693 14.231499671936035 -0.9918631315231323 0.07527495175600052 0.10267028212547302 127 127 127
-4.662644863128662 5.639488220214844 14.491456985473633 -0.5726227760314941 -0.6706450581550598 0.47152772545814514 127 127 127
6.730362892150879 7.969568252563477 18.963176727294922 0.8174808025360107 -0.4756101071834564 -0.32483863830566406 127 127 127
-2.621992349624634 7.844064712524414 10.684172630310059 -0.5777723789215088 -0.6913310885429382 -0.4338667690753937 127 127 127
3.5391042232513428 4.053002834320068 13.412850379943848 0.3220006227493286 0.09473070502281189 -0.9419881701469421 127 127 127
3.17930269241333 0.23078332841396332 12.81956958770752 0.17348699271678925 -0.23583576083183289 -0.9561818838119507 127 127 127
-4.614469528198242 4.284377574920654 13.89699935913086 -0.10065057873725891 -0.48667189478874207 -0.8677672743797302 127 127 127
-0.445636123418808 8.91974925994873 9.621981620788574 0.0462365560233593 0.27117255330085754 -0.9614195823669434 127 127 127
2.808093786239624 5.285667419433594 14.315181732177734 0.6846073865890503 0.10459606349468231 0.7213684320449829 127 127 127
3.093430519104004 2.6889374256134033 13.7112455368042 0.9435896873474121 -0.2983715534210205 0.14357233047485352 127 127 127
-4.512357711791992 4.6822381019592285 13.819174766540527 -0.18062111735343933 -0.26829755306243896 0.9462518095970154 127 127 127
-3.370941162109375 8.433403968811035 12.495532035827637 0.35008755326271057 0.7406162023544312 0.5735210180282593 127 127 127
2.8679847717285156 1.8064807653427124 13.393730163574219 0.7761455774307251 0.5320501923561096 0.3384091854095459 127 127 127
-1.4187198877334595 5.277355194091797 12.555047035217285 -0.1408682018518448 0.24130389094352722 -0.9601711630821228 127 127 127
-2.4623067378997803 7.851847171783447 10.63837718963623 -0.5882028341293335 0.7033340334892273 0.39917245507240295 127 127 127
2.6103522777557373 5.677740097045898 17.700708389282227 -0.1019645407795906 0.9884746670722961 0.11189770698547363 127 127 127
-4.713068008422852 6.923288345336914 14.338248252868652 -0.9891895651817322 0.10636827349662781 -0.10094442218542099 127 127 127
-2.666001081466675 8.187959671020508 10.902227401733398 0.187796488404274 0.9657539129257202 0.1790304183959961 127 127 127
-0.7765989303588867 5.937756538391113 19.776912689208984 -0.02233601175248623 0.9901163578033447 0.13845853507518768 127 127 127
3.1247334480285645 1.306482195854187 13.143800735473633 -0.06447045505046844 -0.1940304934978485 0.9788747429847717 127 127 127
3.368471622467041 -0.9126117825508118 12.140593528747559 0.47176408767700195 -0.4098876714706421 0.7806604504585266 127 127 127
-0.46096375584602356 -0.21730220317840576 12.776667594909668 -0.04843134433031082 -0.25290849804878235 0.9662773013114929 127 127 127
-4.7945098876953125 5.899964332580566 14.444700241088867 -0.643480122089386 -0.3275013864040375 0.6918643712997437 127 127 127
-2.555213212966919 7.904635906219482 10.863405227661133 -0.997282862663269 0.0394630990922451 -0.06220576539635658 127 127 127
3.353010654449463 1.2214136123657227 13.165220260620117 0.09274692088365555 -0.3095763921737671 0.9463406205177307 127 127 127
-4.284178256988525 6.555787086486816 14.823746681213379 -0.8113630414009094 -0.22889620065689087 0.5378629565238953 127 127 127
1.7182645797729492 8.345389366149902 10.551456451416016 0.4570404291152954 0.16789685189723969 -0.8734555840492249 127 127 127
-4.305136680603027 8.44271183013916 13.273938179016113 0.4310947358608246 0.8499049544334412 0.3030165135860443 127 127 127
-4.53230619430542 4.309268951416016 13.737202644348145 -0.5349206924438477 -0.5318034887313843 -0.6565400958061218 127 127 127
-4.38936710357666 8.357670783996582 13.704264640808105 -0.7705398201942444 0.623197078704834 -0.13376764953136444 127 127 127
2.8895421028137207 8.42431926727295 12.655717849731445 -0.10399586707353592 0.9152262210845947 0.38928890228271484 127 127 127
-3.2403457164764404 5.596669673919678 15.363677978515625 -0.8084211349487305 -0.4664081931114197 -0.35905250906944275 127 127 127
-2.5447280406951904 8.850258827209473 10.055055618286133 -0.6279526948928833 -0.5249433517456055 -0.5745518803596497 127 127 127
2.6489553451538086 5.784535884857178 14.677079200744629 0.39186766743659973 0.8712795376777649 -0.29548555612564087 127 127 127
-3.331205368041992 8.403997421264648 12.58543586730957 -0.6560189127922058 -0.6352800130844116 -0.4075027108192444 127 127 127
-0.4376893639564514 7.978630542755127 11.366311073303223 -0.36466196179389954 0.9274076223373413 -0.08328740298748016 127 127 127
3.236746072769165 0.20561055839061737 12.815322875976562 0.16374853253364563 0.11164209246635437 -0.9801645278930664 127 127 127
1.7090994119644165 8.650243759155273 10.733604431152344 0.20243042707443237 0.2991761267185211 -0.9324781894683838 127 127 127
-4.617080211639404 4.512160778045654 13.882223129272461 -0.8292136192321777 0.39094820618629456 -0.3994549512863159 127 127 127
-0.6667002439498901 7.1382317543029785 11.374141693115234 0.19090181589126587 0.9561769366264343 0.22199606895446777 127 127 127
3.381462574005127 4.273019790649414 13.44770622253418 0.014639079570770264 -0.32992735505104065 -0.9438928365707397 127 127 127
-4.292017936706543 4.574880599975586 13.95438003540039 -0.4018259346485138 -0.07864107191562653 0.9123330116271973 127 127 127
-3.961747169494629 4.890089511871338 14.511174201965332 -0.49255135655403137 -0.2234531193971634 0.8411075472831726 127 127 127
-2.825559616088867 8.020940780639648 11.217915534973145 0.6828854084014893 0.4856339693069458 -0.5457355380058289 127 127 127
3.8367927074432373 0.6130428910255432 12.919742584228516 0.02018648199737072 -0.26117536425590515 0.9650802612304688 127 127 127
-2.9936821460723877 8.987839698791504 11.801722526550293 -0.00872431043535471 0.41928040981292725 -0.9078149199485779 127 127 127
-4.753653526306152 6.586198329925537 14.247462272644043 -0.9877227544784546 0.11672115325927734 0.10382641851902008 127 127 127
3.2252447605133057 -0.7547652721405029 12.38512134552002 -0.13249480724334717 -0.47198885679244995 0.8715915083885193 127 127 127
1.1787585020065308 8.318680763244629 10.567888259887695 0.4968879222869873 0.6096372008323669 -0.6176122426986694 127 127 127
3.313246488571167 4.75018310546875 13.52197551727295 0.7551291584968567 -0.4022556245326996 0.5176586508750916 127 127 127
3.6807591915130615 1.8872286081314087 13.224356651306152 0.31473711133003235 -0.297970175743103 -0.9011960625648499 127 127 127
-0.7680266499519348 5.120944499969482 12.440225601196289 -0.11234955489635468 0.2829417586326599 -0.9525342583656311 127 127 127
3.594480276107788 1.4139537811279297 13.2394380569458 0.04160633683204651 -0.12095773965120316 0.9917853474617004 127 127 127
-4.191356182098389 4.269546985626221 14.104140281677246 -0.45998668670654297 0.8674689531326294 0.1894989311695099 127 127 127
4.813569068908691 -3.369887113571167 19.10186767578125 0.10039510577917099 -0.2995404601097107 0.9487867951393127 127 127 127
-0.3501271903514862 7.871552467346191 10.742886543273926 0.40830686688423157 0.8959111571311951 -0.17501068115234375 127 127 127
3.2589805126190186 1.0830637216567993 13.059733390808105 -0.031602807343006134 -0.2851203978061676 0.9579705595970154 127 127 127
3.09446382522583 6.544233798980713 13.936226844787598 0.5016637444496155 0.8487100601196289 0.16740602254867554 127 127 127
-2.9157814979553223 8.783602714538574 10.915997505187988 -0.8395252227783203 0.5080970525741577 -0.19244439899921417 127 127 127
-3.5035524368286133 5.742886543273926 15.304855346679688 0.08692556619644165 0.8532793521881104 0.5141578316688538 127 127 127
6.502544403076172 8.08796501159668 18.750696182250977 0.8560425639152527 -0.4228737950325012 -0.2972690761089325 127 127 127
2.0631682872772217 8.313838958740234 12.944417953491211 -0.057887133210897446 0.9816917777061462 0.18146727979183197 127 127 127
-2.95565128326416 8.732813835144043 10.895030975341797 -0.9082087874412537 0.39602071046829224 -0.13536757230758667 127 127 127
3.886186361312866 5.848370552062988 13.92559814453125 0.2833743691444397 0.4444018602371216 -0.849826991558075 127 127 127
3.8877365589141846 -0.9226688146591187 12.231760025024414 -0.1870127171278 -0.8306366205215454 -0.5244703888893127 127 127 127
2.9500300884246826 5.523414611816406 16.295692443847656 0.9429671764373779 0.33243635296821594 0.01729183830320835 127 127 127
-1.0852447748184204 8.730559349060059 9.620710372924805 0.6315992474555969 -0.12683022022247314 -0.7648506164550781 127 127 127
-3.4883012771606445 6.823155879974365 15.626262664794922 -0.7136459946632385 -0.2188718169927597 0.6654356122016907 127 127 127
-2.754932165145874 9.273027420043945 11.33926010131836 -0.8215036988258362 0.34788864850997925 -0.4517800509929657 127 127 127
-4.2267913818359375 4.384474754333496 13.752988815307617 -0.8649569749832153 -0.0017469092272222042 0.5018429756164551 127 127 127
-3.235059976577759 9.049309730529785 11.854045867919922 0.0828532949090004 0.6551160216331482 -0.7509716153144836 127 127 127
-4.2704243659973145 8.556619644165039 13.512348175048828 -0.7563264966011047 0.6507404446601868 -0.06713471561670303 127 127 127
2.7126331329345703 8.433304786682129 12.918743133544922 -0.3656630218029022 0.8745564222335815 -0.31849902868270874 127 127 127
-3.244452476501465 8.864155769348145 11.64853572845459 0.24484960734844208 0.7044503092765808 -0.6661819815635681 127 127 127
3.987787961959839 4.651927471160889 13.449312210083008 0.4938090145587921 0.5538663268089294 -0.6703616380691528 127 127 127
-4.413623332977295 4.104079723358154 13.745573043823242 0.1002684086561203 -0.31839585304260254 0.9426400661468506 127 127 127
2.508568048477173 8.733152389526367 11.656193733215332 -0.16444215178489685 0.9270550608634949 0.3369387090206146 127 127 127
-2.464101791381836 1.858450174331665 18.228357315063477 -0.8436505794525146 0.006544935517013073 0.5368528366088867 127 127 127
3.438810110092163 -0.8403281569480896 12.192123413085938 0.3526999056339264 -0.5297055244445801 0.7713720202445984 127 127 127
-2.6030473709106445 7.83318567276001 10.963461875915527 -0.9965393543243408 -0.04487995058298111 -0.06996549665927887 127 127 127
-0.26407673954963684 8.69171142578125 9.619495391845703 0.011537795886397362 -0.04212324693799019 -0.9990458488464355 127 127 127
-3.4516584873199463 4.947152137756348 14.501747131347656 -0.029990017414093018 -0.45722243189811707 0.8888465762138367 127 127 127
3.97802472114563 1.854340672492981 13.322657585144043 0.3638087809085846 0.2068362981081009 -0.9082190990447998 127 127 127
3.014518976211548 0.7902124524116516 13.055865287780762 0.13146787881851196 0.032345809042453766 -0.9907926321029663 127 127 127
-2.698056936264038 8.131758689880371 10.71008586883545 0.255202978849411 0.9560052752494812 -0.1446560174226761 127 127 127
3.952373743057251 6.641661643981934 13.79213809967041 0.6197192668914795 -0.37222233414649963 -0.6909404397010803 127 127 127
3.6859147548675537 1.497227668762207 13.25295639038086 -0.14541944861412048 -0.28189775347709656 0.9483600854873657 127 127 127
3.53425931930542 0.682802140712738 12.986774444580078 -0.015179270878434181 -0.3538185656070709 0.9351909160614014 127 127 127
-4.416050434112549 4.267219066619873 13.8980712890625 -0.06676087528467178 -0.6984207630157471 -0.7125667929649353 127 127 127
-3.007805109024048 4.698349475860596 14.57667350769043 0.2014089822769165 -0.38276371359825134 0.901624321937561 127 127 127
2.7873551845550537 4.3021745681762695 14.272778511047363 0.8005717992782593 0.07705987989902496 0.5942613482475281 127 127 127
1.5282459259033203 8.173382759094238 10.368001937866211 0.693940281867981 -0.5521799325942993 -0.46210846304893494 127 127 127
2.8466103076934814 8.356245994567871 12.922303199768066 -0.2540966272354126 0.9155563712120056 0.3117554783821106 127 127 127
-0.6028366684913635 -0.18458178639411926 12.71442699432373 -0.006000156980007887 -0.2720826268196106 0.9622551798820496 127 127 127
1.1446110010147095 8.183690071105957 10.451635360717773 0.6480764746665955 0.6199435591697693 -0.4423426389694214 127 127 127
